ply
format ascii 1.0
element vertex 1327
property float x
property float y
property float z
property uchar red
property uchar green
property uchar blue
end_header
-2.72322 -1.01614 8.56678 35 39 89
-2.75906 -3.03056 8.76349 88 104 133
-2.72605 -2.38214 8.69857 35 38 91
-2.71843 -3.00914 8.76392 47 51 109
-2.42245 0.49218 8.16266 110 94 113
-2.37748 0.84502 8.09014 94 81 106
-2.4141 -0.384636 8.24627 108 95 116
-2.40963 -0.746243 8.27814 113 90 116
-2.4146 -1.53802 8.3611 108 91 122
-2.36636 -0.438544 8.19955 95 76 95
-2.38104 -0.947678 8.28189 114 96 118
-2.4083 -2.19125 8.42504 118 102 128
-2.40645 -2.0647 8.43962 122 96 119
-2.34864 -0.75414 8.25191 113 90 118
-2.42206 -2.08898 8.52922 128 103 123
-2.37125 -1.96926 8.35125 118 94 110
-2.37162 -1.42655 8.36012 114 97 120
-2.39738 -2.63527 8.4606 126 103 128
-2.39394 -2.49558 8.46935 120 97 115
-2.3843 -2.7382 8.46444 115 87 109
-2.22001 0.988427 7.91245 129 119 146
-1.30582 1.27148 4.6814 64 39 50
-2.24744 -1.23001 8.16009 78 55 76
-2.23202 -1.58772 8.18164 125 108 126
-2.19027 -1.25109 8.10814 124 107 123
-2.19175 -1.25312 8.11769 138 114 128
-2.22991 -2.56075 8.29796 85 66 88
-2.22991 -2.56075 8.29796 85 66 88
-2.16084 -1.24219 8.08027 69 43 65
-2.21383 -2.8936 8.30785 91 66 86
-2.1084 -0.822194 7.98184 71 53 69
-2.05255 0.701662 7.77125 33 33 66
-1.7901 0.902691 6.81334 54 41 45
-1.97076 0.797261 7.66721 91 88 120
-2.02563 -0.986307 7.89876 56 38 47
-1.89362 -0.121962 7.70043 53 34 56
-1.84583 0.489404 7.59556 63 54 69
-1.89068 -1.98854 7.8825 73 48 63
-1.89068 -1.98854 7.8825 73 48 63
-1.8456 -1.20812 7.75575 57 42 60
-1.56523 0.915864 6.59444 67 36 46
-1.56523 0.915864 6.59444 67 36 46
-1.62926 -0.00411865 6.93523 71 30 28
-1.85968 -2.59509 7.92223 67 55 69
-1.5231 0.864835 6.55045 58 36 43
-1.79753 -1.63187 7.73745 91 59 70
-1.06549 1.26232 4.5881 95 50 61
-1.7522 -1.63214 7.70909 78 51 68
-1.72079 -0.877911 7.59105 53 36 54
-1.75943 -2.22151 7.77925 76 55 71
-1.4619 0.871475 6.49535 77 42 60
-1.75063 -2.46042 7.79003 83 62 82
-1.43167 0.781417 6.46213 43 37 40
-1.71663 -2.60963 7.78436 96 66 90
-1.69904 -2.32771 7.72554 63 50 64
-1.52339 -0.0320534 6.93999 157 106 123
-1.61724 -1.4866 7.54763 74 57 67
-1.61724 -1.4866 7.54763 74 57 67
-0.984216 1.06112 4.66489 100 51 70
-1.53534 -1.1177 7.43695 79 60 74
-1.55198 -2.48941 7.59344 78 54 71
-1.52077 -2.47467 7.52788 83 63 79
-1.26863 0.739237 6.31202 68 43 62
-1.51332 -2.34054 7.54316 86 62 82
-0.919226 1.15595 4.65584 64 40 58
-0.919226 1.15595 4.65584 64 40 58
-0.919218 1.15645 4.65678 77 51 70
-0.90238 1.22658 4.6297 119 80 101
-1.20483 0.730131 6.23607 70 43 60
-1.41957 -1.92051 7.3927 73 55 77
-1.41957 -1.92051 7.3927 73 55 77
-1.42833 -2.33578 7.44546 70 49 70
-1.42833 -2.33578 7.44546 70 49 70
-1.29136 0.450282 6.76133 48 19 23
-1.42215 -2.49312 7.45469 83 57 80
-1.42215 -2.49312 7.45469 83 57 80
-1.26058 -0.6981 6.62407 44 19 22
-1.37143 -2.31517 7.37278 136 113 134
-1.35549 -2.33977 7.34521 84 60 81
-1.24473 0.497262 6.74876 65 28 35
-1.32888 -2.20462 7.33338 78 56 71
-1.32064 -2.39029 7.35476 63 47 60
-1.31219 -2.6698 7.36285 67 50 70
-1.3077 -2.49355 7.34061 80 56 78
-1.24578 -2.33004 7.26336 76 52 76
-0.737654 0.84388 4.64469 120 74 87
-1.13092 -2.41742 7.14922 77 52 79
-1.12879 -2.45169 7.14157 78 61 83
-1.11664 -2.20977 7.10453 74 57 72
-0.944368 -0.275285 6.17395 99 67 78
-0.961798 -0.0725417 6.32092 46 25 30
-0.958782 0.0720414 6.30373 81 37 47
-0.951775 0.495025 6.26325 126 76 87
-0.898864 0.791243 5.92861 79 42 57
-0.700484 1.22317 4.62512 113 79 103
-0.700484 1.22317 4.62512 113 79 103
-1.06703 -2.35828 7.07023 74 54 72
-0.698969 0.844317 4.64949 120 73 84
-0.940042 0.0166306 6.30227 65 31 42
-0.940042 0.0166306 6.30227 65 31 42
-0.912256 -1.44482 6.16824 42 24 32
-0.677715 0.820146 4.63941 61 32 34
-0.908667 -0.365802 6.25745 119 63 72
1.43717 0.33148 4.39368 0 0 0
1.34608 1.18526 4.10072 0 0 0
1.45211 0.446667 4.41584 0 0 0
1.5565 -0.856113 4.64461 0 0 0
1.47544 1.10795 4.38092 0 0 0
1.60138 -0.919613 4.67217 0 0 0
3.19863 -1.06224 9.03927 0 0 0
1.52856 1.19167 4.29143 0 0 0
1.58013 1.13464 4.42977 0 0 0
1.67178 -0.986918 4.67755 0 0 0
1.64932 0.291231 4.56254 0 0 0
1.76474 -1.38788 4.83327 0 0 0
1.6621 0.682865 4.53272 0 0 0
1.61317 1.13202 4.3604 0 0 0
1.73768 -1.12557 4.67948 0 0 0
1.76162 -1.56322 4.77299 0 0 0
1.69116 1.09838 4.48974 0 0 0
1.76622 -0.29715 4.62595 0 0 0
1.64199 1.29687 4.26207 0 0 0
1.77387 0.134915 4.5397 0 0 0
1.73719 1.15169 4.39387 0 0 0
1.84559 -0.306909 4.62379 0 0 0
1.76251 0.938835 4.41358 0 0 0
1.88624 -0.18253 4.60711 0 0 0
1.89258 -0.198385 4.58795 0 0 0
1.87557 0.296649 4.52956 0 0 0
1.88135 1.0951 4.51069 0 0 0
1.91818 0.25834 4.5117 0 0 0
1.9219 0.289873 4.50975 0 0 0
1.91342 1.25039 4.44391 0 0 0
1.99075 -0.452048 4.58011 0 0 0
1.97602 1.25643 4.498 0 0 0
2.43461 1.37184 4.76088 0 0 0
2.44127 1.34034 4.76933 0 0 0
2.95676 -1.77142 5.44877 0 0 0
2.99317 -1.78979 5.44401 0 0 0
-3.06378 1.69239 7.73799 113 114 112
-3.06378 1.69239 7.73799 113 114 112
-3.06861 1.1501 8.50445 96 108 160
-2.88106 1.652 8.23664 115 104 125
-2.87511 1.52303 8.25375 133 147 189
-2.70561 1.69553 7.63156 35 66 36
-2.70561 1.69553 7.63156 35 66 36
-2.79413 1.54707 8.18869 21 33 49
-2.6902 1.70139 7.93664 128 140 150
-2.68028 1.71054 7.93158 59 58 90
-2.74226 1.33116 8.22176 38 47 72
-2.72021 1.44958 8.2251 80 91 122
-2.71191 0.995508 8.22681 92 114 147
-2.70505 0.797369 8.23143 81 95 131
-2.714 0.450928 8.2385 37 40 72
-2.69583 0.927319 8.22362 31 29 53
-2.69101 0.982928 8.2289 29 37 69
-2.6915 0.983789 8.23392 17 25 56
-2.698 0.44436 8.24218 98 114 149
-2.58168 1.68779 8.025 68 62 74
-2.53567 1.71461 7.97396 54 62 90
-2.443 1.03095 8.08266 151 170 210
-2.38796 -0.0860219 8.11337 114 93 110
-2.3899 -0.298568 8.09456 112 93 115
-2.3111 -0.916109 8.0753 137 113 127
-2.30737 -0.928666 8.05348 95 64 83
-2.18668 0.314774 7.92013 78 60 80
-2.14073 -0.965278 7.95094 78 53 72
-2.05921 0.655771 7.8248 61 53 74
-2.04001 0.985943 7.7855 65 57 77
-2.02436 0.772389 7.78064 163 180 249
-2.06634 -1.23249 7.9036 51 36 54
-2.06662 -1.41874 7.91537 82 66 82
-2.00717 0.0799259 7.80355 46 33 51
-2.00153 -0.434217 7.80859 124 109 136
-2.00683 -0.775374 7.84219 67 46 61
-1.95435 -0.115371 7.77736 61 44 65
-1.95435 -0.115371 7.77736 61 44 65
-1.89388 0.672141 7.69562 127 110 123
-1.89204 0.2735 7.70496 69 55 69
-1.89405 0.138337 7.69783 67 49 65
-1.88435 -0.442531 7.73643 126 109 130
-1.84195 0.0530731 7.68359 51 39 49
-1.68931 0.877507 7.01791 37 32 36
-1.75639 0.408652 7.54723 110 91 112
-1.77396 -0.925347 7.6786 73 54 74
-1.77396 -0.925347 7.6786 73 54 74
-1.68089 -0.152183 7.56969 53 40 51
-1.73962 -1.89317 7.7026 84 65 85
-1.73888 -1.89867 7.72396 85 68 86
-1.7764 2.11587 9.25419 72 41 58
-1.7535 2.10875 9.19948 73 52 69
-1.7535 2.10875 9.19948 73 52 69
-1.65333 -0.164032 7.56006 60 39 55
-1.62558 -0.170207 7.52299 71 48 60
-1.64805 -1.49877 7.635 74 51 59
-1.64805 -1.49877 7.635 74 51 59
-1.57597 -0.177017 7.49255 86 60 76
-1.54127 -1.50197 7.53352 79 56 69
-1.53972 -2.19811 7.58016 82 60 72
-1.50739 -1.67398 7.51523 78 52 67
-1.50739 -1.67398 7.51523 78 52 67
-0.677526 -0.597701 6.76369 48 20 20
-0.50987 -1.30608 7.0596 70 39 51
-0.404267 1.45671 5.20139 86 69 82
-0.244889 1.35705 5.38888 128 87 107
-0.201722 1.35485 5.39145 100 73 91
-0.166683 1.37219 5.37272 79 56 73
0.0246671 1.33464 5.24875 108 71 85
0.0994907 1.32627 5.17323 123 79 101
0.267345 1.45263 4.95343 59 55 66
0.548643 1.35397 5.16525 62 58 71
0.623926 1.19646 5.23494 117 101 128
0.69234 1.07753 5.13765 79 53 73
0.741249 1.0715 5.06519 75 58 77
0.970135 1.16895 4.76454 88 71 108
0.971993 1.12899 4.75588 46 33 40
1.07768 1.14574 4.62451 123 104 119
1.18423 1.11255 4.47819 103 101 121
1.52427 1.1368 4.38453 40 36 53
1.57876 1.11869 4.3055 21 18 30
1.57022 1.14059 4.28445 59 52 68
1.4849 1.32962 4.13037 38 36 43
1.56742 1.20504 4.19447 61 57 70
1.70796 1.1132 4.32827 78 101 131
1.70032 0.963832 4.29223 152 174 214
-2.73959 0.780631 8.23411 32 39 57
-2.71654 0.593966 8.22665 22 28 48
-2.71395 1.04374 8.23022 92 108 141
-2.70614 0.758066 8.22866 99 115 150
-2.70077 0.611963 8.23441 95 110 149
-2.69503 1.0458 8.22531 44 52 93
-2.69493 0.956227 8.22425 33 45 90
-2.65995 0.958912 8.25486 131 145 190
-2.44124 1.31292 8.06736 77 83 108
-2.4382 1.28706 8.06945 145 163 203
-2.41677 1.00921 8.06142 100 90 119
-2.35183 1.27731 8.01085 40 33 54
-2.27712 1.00478 7.96847 125 114 137
-2.08346 0.991559 7.81943 54 47 65
-2.08346 0.991559 7.81943 54 47 65
-2.0663 0.806831 7.81182 115 126 163
-2.02517 0.819874 7.77769 159 176 246
-1.9714 0.818084 7.74688 44 40 72
-1.84119 0.837565 7.11933 37 26 33
-1.84119 0.837565 7.11933 37 26 33
-1.59098 0.79833 6.9255 53 33 44
-1.57399 0.917372 6.89845 53 33 39
-1.50161 0.677803 7.11794 87 39 49
-1.28367 0.887644 6.64495 74 41 56
-1.09431 0.783669 6.4836 81 42 60
-1.05664 0.985382 6.36195 74 50 59
-0.943782 0.9352 6.24652 137 100 118
-0.851322 0.311902 6.27609 139 137 132
-0.77889 0.235129 6.26123 96 84 85
-0.782745 0.735498 6.20027 69 40 54
-0.772279 0.205978 6.26326 202 198 189
-0.774688 0.284825 6.23063 154 143 137
-0.683906 0.242747 6.34955 150 137 126
-0.671373 0.809658 6.0725 75 47 57
-0.502361 -0.59815 6.12401 66 31 30
-0.51785 0.745953 5.9358 65 43 56
-0.644399 1.3492 5.04121 169 122 148
-0.395289 0.779155 5.79864 134 88 103
-0.541506 1.47148 4.41214 108 109 131
0.175703 -0.166617 5.37696 145 93 108
0.275374 0.224101 5.39901 72 30 36
0.800344 -1.82962 5.40258 79 58 79
0.807346 -1.89277 5.40086 67 54 80
0.807346 -1.89277 5.40086 67 54 80
0.821964 -1.65743 5.35398 93 69 98
0.836844 -1.44492 5.32788 67 59 73
0.836844 -1.44492 5.32788 67 59 73
0.877301 -1.61856 5.29153 85 64 89
0.890541 -1.33002 5.23642 88 56 75
0.9117 -0.684485 5.1467 66 46 61
0.935578 -1.44287 5.20018 70 53 63
0.938068 -1.41997 5.18178 134 113 136
0.988698 -1.10082 5.09196 67 58 70
1.14918 -0.707282 4.84861 66 48 60
1.23596 -0.130392 4.63775 120 99 110
1.34124 0.0175464 4.45927 130 106 125
-1.85542 0.379942 7.70503 50 36 46
-1.71435 0.136753 7.65002 64 51 62
-1.23985 0.35106 7.01985 55 25 35
-1.13448 0.356893 6.93487 58 22 21
-1.09319 0.0821869 6.94122 53 26 39
-1.07265 0.289834 6.86985 53 27 36
-1.07265 0.289834 6.86985 53 27 36
-1.00779 0.257674 6.67982 62 31 41
-0.973374 0.326599 6.63638 61 37 47
-0.971577 0.416038 6.62248 56 22 30
-0.965179 0.252762 6.64997 76 43 55
-0.925411 0.410242 6.5777 53 22 28
-0.794474 -0.0136193 6.50979 146 123 109
-0.788961 0.00410743 6.50516 139 118 99
-0.828674 0.395791 6.35627 107 96 75
-0.825027 0.263792 6.25453 153 142 148
-0.825027 0.263792 6.25453 153 140 146
-0.822246 0.283974 6.24984 110 98 84
-0.805737 0.339569 6.25133 70 42 32
-0.775967 0.238119 6.26738 96 86 87
-0.773825 0.264875 6.2455 204 205 191
-0.772872 0.324258 6.23135 142 137 133
-0.657245 -0.0245621 6.41816 67 37 16
-0.715619 0.228686 6.24941 189 180 175
-0.581352 0.0985026 6.37764 94 76 56
-0.637262 0.317841 6.21501 187 180 170
-0.580971 0.325273 6.16963 110 87 94
-0.52038 0.388436 6.18232 63 32 37
-0.444084 -0.135766 6.19375 67 31 43
-0.426584 0.44408 6.08345 135 82 92
-0.423694 -0.0132312 6.13695 157 106 121
-0.400954 0.188191 6.09127 71 41 49
-0.393961 -0.0758272 6.13057 70 38 49
2.92547 -1.57047 11.8953 81 33 51
2.92292 -1.33881 11.8527 36 16 17
-0.366887 0.00413049 6.08479 53 23 31
3.01646 -1.50757 11.8961 136 86 98
-0.196804 -0.13832 6.08396 65 35 44
-0.18518 0.200799 6.02291 51 23 32
-0.110108 0.210478 5.92559 40 19 24
-0.123017 0.124439 5.86388 98 45 55
-0.0628901 0.0635122 5.89474 157 100 117
-0.0714958 0.104093 5.86819 149 92 107
-0.0322388 -0.0624196 5.89441 61 37 43
0.0558097 0.191907 5.7731 59 27 35
0.540721 -1.18153 5.63635 98 64 81
0.544592 0.318464 5.42794 75 51 64
0.582842 0.205271 5.41058 135 114 129
0.618905 -1.46167 5.59351 75 61 88
0.621668 -1.63096 5.60199 102 74 98
0.606754 -0.432649 5.45764 150 127 148
0.651071 -1.74108 5.57893 100 67 88
0.666127 -0.448963 5.4003 60 46 55
0.684228 -1.06546 5.46274 73 67 79
0.682616 -0.832019 5.43285 61 45 56
0.69044 -1.08755 5.4499 83 60 74
0.701365 -0.807999 5.41365 86 74 99
0.709375 -0.824805 5.40049 75 55 82
0.716525 -1.11694 5.41401 114 74 88
0.726821 -1.08014 5.40526 88 67 81
0.724572 -0.271409 5.30107 69 43 51
0.765052 -0.202061 5.23475 142 124 144
0.756035 0.279847 5.17959 82 60 74
0.779204 -0.157126 5.23037 78 59 77
0.846091 -0.667469 5.21185 59 41 48
0.846091 -0.667469 5.21185 68 47 58
0.861696 -1.56848 5.29287 89 68 87
0.865709 -1.55186 5.28393 129 121 139
0.85163 0.281173 5.07727 81 58 76
0.867208 -0.288817 5.12542 64 41 50
0.889346 -0.069637 5.07625 81 57 71
0.881357 0.277909 5.03081 80 56 67
0.928079 -1.44087 5.19311 75 56 69
0.929296 -0.357728 5.06343 70 54 72
0.929296 -0.357728 5.06343 73 53 73
0.926458 -0.0725281 5.02394 91 62 80
0.965238 -1.44569 5.14602 80 54 67
0.983043 -0.105998 4.9618 143 123 140
0.991411 0.432779 4.86931 58 41 52
1.00189 -0.0635909 4.91934 120 98 111
1.0026 0.174611 4.88242 152 132 143
1.0083 0.169312 4.87003 117 92 113
1.04681 -1.60801 5.03866 143 125 141
1.04681 -1.60801 5.03866 143 125 141
1.0266 0.0969035 4.85237 131 108 123
1.06679 -1.55037 5.01371 64 49 69
1.07286 -0.309573 4.85668 132 114 130
1.10426 -1.76879 5.00127 66 45 73
1.12274 -1.55933 4.95178 45 32 54
1.13945 -1.12804 4.86554 115 107 124
1.13986 -1.12807 4.86572 120 109 126
1.14715 -0.685212 4.80143 131 110 127
1.16708 -0.169627 4.71266 127 115 133
1.17583 0.208184 4.6346 72 56 69
1.19763 0.595051 4.56988 142 118 128
1.23704 0.0453539 4.57674 138 115 132
1.31241 -0.400546 4.53224 137 113 128
1.31382 0.029722 4.47641 138 117 136
1.34103 -0.192355 4.47007 88 62 88
1.34103 -0.192355 4.47007 88 62 88
1.32062 0.89896 4.35733 66 43 53
1.32062 0.89896 4.35733 66 43 53
1.34062 0.912418 4.33015 127 107 118
1.47054 1.41143 4.10443 13 18 18
-1.54143 0.374787 8.84515 66 55 82
-1.53788 0.382903 8.8514 133 118 136
-1.51831 0.368421 8.81809 67 55 79
-1.43058 0.498428 8.58934 80 57 80
-1.43185 0.818083 8.53236 36 28 43
-1.39342 0.443048 8.52737 122 106 126
-1.32828 0.849857 8.30763 43 29 35
-1.32048 0.818882 8.27522 43 34 40
-1.31862 0.818616 8.27813 44 34 42
-1.30591 0.803194 8.24564 95 78 97
-1.22761 0.484148 8.17427 60 41 53
-1.35203 0.630709 7.62193 113 77 91
-1.1021 0.47519 7.40285 65 25 32
-0.964175 0.491512 7.22398 54 25 31
-0.964175 0.491512 7.22398 54 25 31
-1.00695 0.307092 7.15852 134 81 91
-0.891924 0.444199 6.82585 69 34 45
-0.894867 0.259705 6.84348 48 22 31
-0.894867 0.259705 6.84348 48 22 31
-0.887608 -0.0749053 6.8892 46 20 27
-0.884964 0.0894581 6.85369 48 23 30
-0.876878 0.436537 6.78753 129 73 81
-0.882089 -0.117109 6.82734 54 24 27
-0.882089 -0.117109 6.82734 50 20 25
-0.860537 0.0851179 6.81384 46 23 30
-0.847515 0.525745 6.72528 132 79 92
-0.847515 0.525745 6.72528 133 81 93
-0.829021 0.344749 6.73601 70 37 48
-0.770984 0.39613 6.59721 106 94 108
-0.818806 0.35094 6.39744 56 36 29
-0.666645 -0.314932 6.59363 66 29 33
-0.804202 0.245547 6.35089 82 72 70
-0.746203 -0.0498975 6.4434 218 207 189
-0.719927 -0.0992655 6.46124 216 205 185
-0.807047 0.230499 6.30958 127 117 115
-0.81217 0.282813 6.24879 93 74 60
-0.641052 -0.340772 6.52603 30 15 16
-0.794742 0.354703 6.25321 55 39 32
-0.797162 0.336357 6.25217 82 50 35
-0.798216 0.285707 6.2439 73 54 47
-0.693555 0.0616859 6.382 149 131 106
-0.63653 -0.183016 6.45688 175 158 138
-0.741355 0.348156 6.25623 40 26 26
-0.576113 0.126579 6.42691 139 119 95
-0.575767 -0.0450818 6.40877 154 135 120
-0.617247 0.319759 6.20343 188 176 160
-0.478732 0.37037 6.17287 73 34 47
-0.47359 0.0302593 6.21676 75 34 48
-0.529863 0.556953 6.09461 103 50 58
-0.457896 -0.145951 6.20823 128 70 82
-0.460297 0.359155 6.13851 133 78 91
-0.447037 0.114389 6.14565 63 36 43
-0.436594 0.28498 6.11991 71 35 49
-0.428787 0.407818 6.08664 130 74 87
-0.428787 0.407818 6.08664 130 74 87
-0.429041 0.449742 6.08042 135 79 88
-0.389438 -0.15448 6.10667 129 76 86
-0.372919 0.173105 6.03953 53 26 35
-0.372919 0.173105 6.03953 53 26 35
-0.14007 -0.433894 6.05612 52 29 37
-0.100122 -0.173657 5.97891 61 35 44
-0.0924947 -0.17359 5.98356 58 32 41
-0.102107 0.319538 5.89262 132 79 87
-0.128935 -0.282913 5.89556 131 79 92
-0.0740122 0.0721873 5.8362 152 99 116
-0.1382 -0.895672 5.79763 109 61 73
0.0258633 0.352827 5.70102 71 39 52
0.0295312 0.353364 5.70297 67 32 45
0.00464505 0.249745 5.62311 135 84 99
-0.225144 0.576029 5.38366 154 122 142
-0.201219 0.614518 5.33393 80 57 63
0.112069 0.346858 5.60242 72 35 49
0.164539 0.222968 5.54527 56 29 37
-0.0314337 0.526752 5.33587 150 93 115
-0.0314337 0.526752 5.33587 150 93 115
0.421812 -1.45818 5.86226 94 62 76
-0.0872667 0.649526 5.21065 54 33 40
0.415135 -0.400877 5.67602 159 138 165
0.430143 -0.596471 5.69698 99 71 86
0.430143 -0.596471 5.69698 99 71 86
0.151234 -0.0329706 5.41714 36 19 25
0.465218 -0.618893 5.6647 74 57 73
0.465218 -0.618893 5.6647 74 57 73
0.463149 -0.427537 5.63063 82 51 66
0.485377 -0.603516 5.64506 82 59 75
0.516019 -1.36152 5.70796 91 59 76
-0.0376642 1.02324 5.05285 60 33 42
0.518279 -0.801064 5.62135 80 63 82
0.532018 -0.952423 5.62022 148 129 151
0.0121452 0.692345 5.05325 77 38 50
0.563562 -1.2203 5.61719 146 130 147
0.0267599 0.583006 5.05931 56 43 50
0.00696611 0.896931 5.00272 41 27 24
-0.0322299 0.837933 4.98137 45 27 25
0.555421 -0.42871 5.50519 167 149 171
0.579384 0.199226 5.38248 82 58 74
0.591076 0.312988 5.34148 84 56 67
0.636954 -0.432353 5.41174 155 133 155
0.660584 -1.39481 5.52217 81 62 73
0.680792 -1.54332 5.54375 96 68 100
0.670885 -1.18525 5.4935 138 119 139
0.624313 0.49008 5.2648 147 124 138
0.651886 0.42657 5.25039 85 61 82
0.666265 -0.0413634 5.30742 132 109 122
0.654887 0.490122 5.23394 154 128 144
0.654887 0.490122 5.23394 154 128 144
0.716238 -0.651957 5.39114 121 119 137
0.678908 0.153087 5.27506 91 66 88
0.656741 0.642394 5.19927 96 67 76
0.744541 -1.69634 5.48563 82 59 75
0.677522 0.694924 5.18857 122 112 136
0.677522 0.694924 5.18857 122 112 136
0.668823 1.08043 5.13651 73 48 65
0.680752 0.783057 5.17043 73 55 79
0.678578 0.995439 5.1411 79 58 79
0.678578 0.995439 5.1411 79 58 79
0.710024 -0.0230683 5.26079 132 116 138
0.741371 -1.09586 5.39253 148 127 146
0.688612 0.537799 5.18709 92 67 86
0.714349 -0.158625 5.26058 73 48 54
0.699212 0.776827 5.12957 140 112 128
0.713839 0.484441 5.16583 92 67 89
0.768539 -1.08769 5.35947 78 48 71
0.742843 -0.0948784 5.22779 149 129 152
0.76239 -0.83621 5.31526 144 132 152
0.760993 -0.145572 5.23338 137 116 136
0.713733 0.531715 5.13347 72 55 66
0.714056 0.531685 5.1336 76 55 69
0.714056 0.531685 5.1336 76 55 69
0.787552 -1.22402 5.3525 94 64 88
0.772748 -0.158915 5.22687 83 64 84
0.715414 1.07683 5.06105 82 61 85
0.753733 0.532863 5.1386 72 57 75
0.76639 -0.219535 5.22189 81 57 78
0.817343 -1.7206 5.40858 64 50 71
0.758513 0.476577 5.1386 129 120 141
0.742548 0.961888 5.06747 78 62 87
0.816623 -1.57271 5.37455 93 62 86
0.76693 0.638633 5.10864 124 115 135
0.778714 -0.153553 5.19153 146 124 139
0.818228 -1.22026 5.31885 94 66 87
0.765424 0.601889 5.09483 137 111 117
0.780111 0.262343 5.13728 88 69 93
0.752964 1.15751 5.02571 44 30 36
0.757778 1.15866 5.02736 48 31 41
0.775207 0.809401 5.05574 89 70 94
0.801854 -0.0859757 5.16085 113 88 114
0.78467 0.356215 5.102 90 65 78
0.779046 0.895158 5.04071 131 128 151
0.778484 0.929428 5.03669 134 131 151
0.778484 0.929428 5.03669 134 131 151
0.78011 0.846848 5.0418 130 125 150
0.803906 0.169195 5.1234 94 76 100
0.84558 -1.29665 5.29901 67 48 67
0.783595 0.919244 5.02535 77 58 78
0.784411 0.947261 5.02244 71 55 78
0.829552 -0.285741 5.17047 69 47 60
0.774217 1.24427 4.9612 94 71 88
0.774217 1.24427 4.9612 94 71 88
0.881453 -1.53334 5.29911 69 57 80
0.801835 0.83351 5.00329 141 122 151
0.90531 -1.76046 5.31315 123 111 126
0.901002 -1.06802 5.20722 150 125 142
0.909752 -1.09471 5.19458 69 63 86
0.86197 0.351148 5.00697 144 122 141
0.881181 0.0502961 5.04718 102 75 90
0.920552 -1.31234 5.20627 67 49 61
0.863596 0.961255 4.92608 66 54 75
0.876929 0.332443 4.99608 92 64 83
0.876929 0.332443 4.99608 85 61 82
0.843313 0.542508 4.95416 76 119 212
0.86561 0.977074 4.91779 146 135 169
0.856617 0.501668 4.95884 101 139 223
0.932866 -0.868215 5.13587 73 55 74
0.943586 -1.33086 5.18452 128 106 129
0.877001 0.427413 4.96417 126 109 125
0.896715 0.268295 4.99125 92 64 79
0.890484 0.784093 4.91511 149 125 139
0.895623 0.479462 4.94587 104 79 95
0.939984 -0.473521 5.0526 147 134 154
0.887076 1.11376 4.85313 84 59 83
0.887076 1.11376 4.85313 84 59 83
0.892369 1.05331 4.86076 91 68 86
0.915455 0.176212 4.96356 148 127 140
0.942823 -0.294757 5.02165 82 55 70
0.93912 0.104957 4.9603 78 54 67
0.93912 0.104957 4.9603 78 54 67
0.927968 0.801975 4.88115 81 63 77
0.927968 0.801975 4.88115 81 63 77
0.93707 0.366724 4.91424 101 70 86
1.01741 -1.45215 5.13324 85 65 86
1.02386 -1.82716 5.17224 78 56 83
0.919888 1.11506 4.80661 137 120 136
0.98721 -0.472311 5.00371 91 67 86
0.98721 -0.472311 5.00371 91 67 86
0.964989 0.229553 4.91861 71 61 76
0.983356 -0.125948 4.95623 102 70 86
0.953693 0.942302 4.82352 90 71 91
0.953693 0.942302 4.82352 90 71 91
0.959966 1.17243 4.78136 127 122 148
0.981607 0.750366 4.82511 130 119 136
0.976664 0.936932 4.78678 88 72 94
0.988021 0.42272 4.84233 65 44 51
1.03364 -0.300583 4.93153 148 131 153
1.00896 0.158118 4.86961 156 134 147
1.01223 0.780099 4.80439 75 57 68
1.02034 0.44087 4.82245 143 124 145
1.02797 0.862769 4.7552 85 66 85
1.02779 1.15956 4.72338 72 60 72
1.02486 0.905884 4.74526 87 59 82
1.02486 0.905884 4.74526 87 59 82
1.03305 0.893764 4.7328 138 118 133
1.10166 -1.11304 4.97268 67 53 72
1.10704 -0.915282 4.94471 144 130 147
1.07081 0.619812 4.76133 74 52 67
1.07179 0.619956 4.7616 75 49 65
1.07599 0.424032 4.77619 62 43 58
1.07599 0.424032 4.77619 62 43 58
1.14158 0.238098 4.71529 93 67 93
1.1757 0.914621 4.58635 73 59 72
1.20671 0.0955684 4.67766 53 46 56
1.20922 0.209668 4.6491 70 51 63
1.17968 1.13654 4.53262 58 44 56
1.19191 0.90721 4.55797 92 72 81
1.22401 -0.215848 4.6859 136 118 134
1.22401 -0.215848 4.6859 136 118 134
1.18901 1.1375 4.4954 114 107 127
1.24566 0.0369621 4.6203 138 119 138
1.30602 -0.759159 4.67061 103 74 92
-1.9667 1.15929 8.86176 75 69 89
-1.83766 0.610146 8.75189 77 71 91
-1.82759 0.61387 8.71508 124 105 124
-1.71939 0.772506 8.48426 106 92 106
-1.71148 0.749139 8.50146 118 100 116
-1.71559 0.774242 8.48904 112 97 116
-1.63281 0.719707 8.38752 105 98 121
-1.59594 0.851637 8.31834 107 95 115
-1.58271 0.861035 8.28783 114 107 130
-1.52562 1.17967 8.14778 54 42 53
-1.5161 0.531482 8.22466 46 36 42
-1.47367 0.558877 8.13867 124 103 122
-1.45851 0.802666 8.07023 55 45 49
-1.44268 0.492798 8.11223 48 35 44
-1.38046 0.488486 7.98126 116 93 107
-1.67534 0.824948 7.37238 133 84 103
-1.51828 0.793694 7.36233 89 59 61
-1.58518 1.03331 7.21112 84 59 63
-1.5839 0.880094 7.23058 131 86 96
-1.57892 1.31919 7.13361 51 25 29
-1.40919 0.778664 7.25598 84 61 70
-1.48404 0.942745 7.08124 60 39 46
-1.21225 0.56045 7.35231 60 30 40
-2.11794 1.30276 6.09713 58 39 45
-1.1409 0.57017 7.27398 62 30 43
-1.06155 0.461765 7.15616 54 28 37
-1.11119 0.726726 6.77774 42 32 37
-0.876998 0.415961 6.66182 52 29 37
-1.01444 0.858808 6.42457 87 47 65
-0.851075 0.411191 6.62572 55 24 34
-1.90543 1.31774 5.38877 74 42 54
-1.861 1.27881 5.40428 118 80 97
-1.861 1.27881 5.40428 118 80 97
-1.81962 1.2715 5.34764 115 81 100
-1.81962 1.2715 5.34764 115 81 100
-0.767867 0.215836 6.30984 193 189 180
-1.81494 1.30325 5.27395 89 52 60
-1.83981 1.4578 5.21633 239 241 254
-0.773809 0.730551 6.09449 76 45 60
-0.764064 0.732217 6.09905 82 49 65
-0.752999 0.96807 5.93483 46 84 138
11.7539 -3.46574 15.3182 158 105 120
-0.572692 0.641395 5.99409 122 69 87
-0.421786 0.342868 6.05591 55 26 38
-0.601967 0.697156 5.88807 140 98 112
-0.140139 -0.0315036 5.9786 85 48 66
-0.12964 -0.0551458 5.96228 67 36 49
-0.0986667 -0.15589 5.94839 65 35 43
-0.413409 0.799471 5.64262 65 37 45
-0.399723 0.753253 5.62022 102 69 85
-0.343469 0.659514 5.56548 142 97 107
0.0334298 0.162361 5.72516 67 35 47
0.268254 -1.41197 6.01381 116 104 119
0.274404 -1.41143 6.01311 95 92 107
0.311756 -1.62559 6.01267 70 54 77
0.308613 -1.58863 6.00043 95 71 97
0.308613 -1.58863 6.00043 95 71 97
0.307325 -1.53409 5.9906 87 68 92
0.0453776 0.246538 5.6282 150 95 114
0.0705224 -0.0033386 5.66712 114 69 74
0.323734 -1.34118 5.94433 103 73 85
-0.179072 0.717677 5.34434 134 88 99
0.386791 -0.817026 5.79126 142 129 158
0.395475 -0.987593 5.80892 137 125 146
-0.147172 0.761975 5.3081 65 36 46
0.407112 -0.430598 5.69683 145 118 133
0.4156 -0.440315 5.68813 109 69 84
0.422235 -0.420183 5.67706 116 72 93
0.44957 -0.765847 5.69616 96 71 92
0.46531 -0.736469 5.67776 100 84 110
0.0578668 0.4688 5.34091 102 56 68
0.119866 0.34008 5.37677 145 92 110
-0.0822995 0.734424 5.23291 98 62 78
0.517785 -1.82842 5.77476 113 87 111
0.100403 0.480371 5.28405 164 107 122
0.54435 -0.82531 5.60329 143 128 153
0.581929 -0.828456 5.55382 83 60 79
0.0203633 0.692997 5.1183 95 58 74
0.597393 -0.808449 5.52993 95 73 107
0.602872 -0.818523 5.5286 133 119 138
0.589823 -0.436108 5.47991 161 137 159
0.608381 -0.447541 5.47078 98 64 89
0.634324 -1.04053 5.534 100 71 93
0.0160193 1.14131 5.01246 64 30 45
0.645844 -0.84076 5.47796 70 54 64
0.0323887 1.11945 4.9977 137 89 103
0.620287 0.310429 5.32101 100 72 93
0.679798 -1.03541 5.48579 143 125 143
0.679884 -1.0867 5.46908 84 74 83
0.694944 -1.20594 5.48706 93 67 81
0.0290286 1.26245 4.9461 134 87 110
0.709682 -1.0469 5.44243 89 69 91
0.699016 -0.699496 5.3991 139 120 139
0.714591 -1.3887 5.47697 137 125 153
0.654575 0.427447 5.2514 85 61 82
0.676192 0.333057 5.26567 96 72 102
0.729413 -1.0628 5.42243 131 121 140
0.68577 0.446078 5.21677 88 63 76
0.0999575 0.840429 4.93652 69 39 41
0.75764 -0.649057 5.3296 117 109 133
0.77989 -1.22427 5.38581 86 65 81
0.769039 -0.661754 5.32192 63 43 63
0.777755 -0.908932 5.34197 82 60 80
0.712143 0.49917 5.16662 158 135 147
0.752202 -0.350536 5.26784 96 67 87
0.774394 -0.273175 5.26266 64 55 69
0.763257 -0.14603 5.23426 137 116 136
0.828688 -1.90045 5.44111 135 125 152
0.819476 -1.42674 5.38739 80 59 80
0.742784 0.44929 5.15078 90 67 75
0.735376 0.489411 5.14027 91 68 88
0.762907 -0.251777 5.22581 84 62 87
0.75697 0.409944 5.12965 80 55 76
0.828939 -1.2538 5.33062 144 125 144
0.828939 -1.2538 5.33062 144 125 144
0.763184 0.65309 5.10497 49 33 59
0.813612 -0.868982 5.28308 99 67 87
-0.553019 1.36916 4.53142 146 154 173
-0.553019 1.36916 4.53142 146 154 173
0.785168 0.457242 5.12411 64 48 58
0.772586 0.441601 5.11914 117 95 108
0.767197 0.319388 5.12996 116 87 102
0.774603 0.490908 5.10197 142 119 136
0.769247 0.590326 5.0855 133 108 124
0.800539 0.270841 5.12264 127 118 141
0.823399 -0.310978 5.17975 134 115 135
0.857492 -0.478242 5.16347 98 68 92
0.830739 0.461667 5.05169 143 125 145
0.831056 0.342813 5.04371 162 138 151
0.832282 0.653032 5.0037 93 79 112
0.91349 -0.882589 5.1865 79 59 71
0.91349 -0.882589 5.1865 79 59 71
0.851921 0.439857 5.02305 60 46 63
0.851921 0.439857 5.02305 60 46 63
0.852185 0.403945 5.0132 140 121 141
0.921706 -0.682662 5.14409 77 56 73
0.85067 0.473739 4.98045 29 70 176
0.851134 0.47298 4.98058 25 60 178
0.85797 0.822544 4.94414 156 139 168
0.839075 1.23451 4.89402 114 86 98
0.839075 1.23451 4.89402 114 86 98
0.903119 -0.0590807 5.04084 148 131 150
0.903119 -0.0590807 5.04084 148 131 150
0.953049 -1.18524 5.17224 83 71 97
0.86189 0.518561 4.96065 87 131 223
0.850116 1.14691 4.89032 54 37 48
0.946706 -0.773281 5.11296 80 62 88
0.948906 -0.678404 5.10369 72 53 65
0.866646 0.903783 4.90086 154 136 158
0.876213 0.974797 4.89054 150 139 168
0.909078 0.497869 4.92426 142 116 132
0.889607 1.05288 4.85999 91 68 86
1.02411 -1.84502 5.20257 90 68 94
0.901287 1.14946 4.84522 81 62 74
0.94776 0.141853 4.9603 147 124 143
0.915182 0.951626 4.86492 68 53 72
0.965616 -0.348684 5.01327 110 80 97
0.908563 1.11263 4.8297 141 114 130
1.01683 -1.10872 5.07858 74 62 83
0.981996 0.111518 4.94047 79 57 69
0.9721 0.19728 4.92433 87 62 83
1.00992 -0.887043 5.0489 108 80 96
1.04204 -1.33165 5.10039 72 57 83
0.987358 -0.0627416 4.94849 130 107 124
0.985542 0.153505 4.90689 146 124 143
0.966099 0.686249 4.83955 146 124 139
0.998881 -0.0618046 4.91798 129 112 130
1.00651 0.452751 4.81796 135 112 128
1.03304 0.455377 4.8214 140 119 138
1.10317 -1.10878 4.98935 62 53 67
1.13154 -1.56313 5.04206 73 56 85
1.13122 -0.896728 4.92465 93 64 84
1.07055 0.392914 4.77361 102 74 86
1.14664 -0.901279 4.90661 80 54 79
1.09719 0.401923 4.74641 134 111 127
1.16441 -0.924547 4.90201 140 125 145
1.04531 1.19862 4.63853 86 77 100
1.14533 -0.324931 4.8208 72 49 64
1.17862 -0.958859 4.87525 130 107 125
1.13099 0.617611 4.67586 75 51 81
1.13099 0.617611 4.67586 75 51 81
1.09256 0.972748 4.62194 102 78 95
1.13559 0.440722 4.68372 134 111 129
1.1917 -0.12298 4.72771 75 54 72
1.23109 -1.21847 4.84298 113 91 114
1.1615 0.462639 4.65052 92 67 83
1.19404 -0.146219 4.72111 139 122 142
1.19404 -0.146219 4.72111 139 122 142
1.19404 -0.146219 4.72111 139 122 142
1.18704 0.150839 4.68177 151 135 155
1.18043 1.0192 4.53874 99 75 96
1.24041 -0.115171 4.66877 68 51 61
1.20476 0.602609 4.57642 93 67 93
1.20476 0.602609 4.57642 93 67 93
1.1979 0.747888 4.55145 72 48 64
1.23909 0.780841 4.51053 98 67 87
1.24084 0.820452 4.50334 87 63 85
1.34789 -1.18163 4.71999 96 77 103
1.31795 -0.295503 4.59918 143 122 142
1.25037 1.11261 4.43833 77 58 74
1.28777 0.606492 4.4766 146 127 146
1.32561 0.0621349 4.53467 106 83 106
1.34226 1.10061 4.32967 120 98 107
-2.05989 -0.329803 8.81632 49 42 64
-2.04302 -0.0621571 8.74877 58 50 64
-2.04302 -0.0621571 8.74877 58 50 64
-2.04159 0.0932206 8.72267 115 109 137
-2.03614 0.0923976 8.72835 118 111 140
-2.03664 -0.0589846 8.73862 75 64 79
-1.99873 0.356726 8.62729 66 52 71
-1.97965 -0.258433 8.69033 130 118 142
-1.97264 -0.546954 8.72098 123 113 134
-1.96654 -0.579712 8.71883 51 38 63
-1.96997 0.00845082 8.63514 137 124 143
-1.96244 -0.485386 8.70569 44 38 60
-1.96307 -0.444982 8.69497 115 100 124
-1.96197 -0.260214 8.6577 124 108 134
-1.94828 -0.738706 8.73714 59 50 67
-1.95725 -0.202774 8.65309 92 65 86
-1.93931 0.0992188 8.58325 129 114 140
-1.92524 -0.264232 8.6143 120 101 122
-1.91962 -0.355017 8.62165 83 63 85
-1.91962 -0.355017 8.62165 83 63 85
-1.91872 0.0600783 8.56251 91 71 93
-1.91816 -0.198234 8.59596 65 55 81
-1.91758 -0.249927 8.6009 72 58 83
-1.91059 0.574716 8.48014 68 55 81
-1.89792 -0.318806 8.58948 87 70 99
-1.89875 0.352056 8.47674 126 114 134
-1.8884 -0.0801075 8.54608 128 123 145
-1.88071 0.339985 8.48553 76 63 82
-1.85463 -0.341771 8.53604 88 75 107
-1.83827 -0.448151 8.53155 66 53 83
-1.84617 -0.298205 8.50115 67 58 80
-1.81365 -0.665701 8.53586 124 106 130
-1.8159 0.55252 8.35434 121 107 122
-1.80139 -0.602349 8.50828 81 64 91
-1.80638 -0.023162 8.42013 100 77 100
-1.80569 -0.503564 8.47958 114 103 133
-1.80253 0.555191 8.3358 63 50 68
-1.80501 0.387275 8.35357 136 116 127
-1.78613 -0.492064 8.47893 105 94 117
-1.77961 -0.561637 8.48096 69 61 85
-1.77341 -0.459821 8.47302 131 113 137
-1.77456 -0.0919485 8.41523 65 56 81
-1.77477 -0.0343163 8.40265 69 53 80
-1.77038 -0.0827944 8.39866 129 108 131
-1.76772 0.561024 8.2932 137 121 135
-1.74895 0.164886 8.33935 53 39 52
-1.75275 0.52972 8.27915 131 114 134
-1.74208 0.38301 8.28087 53 45 64
-1.73188 -0.139638 8.36117 131 113 139
-1.73142 0.407374 8.27897 50 36 46
-1.71626 -0.342752 8.36387 73 60 91
-1.70635 -0.717853 8.41891 126 98 113
-1.70065 -0.727863 8.41463 80 56 74
-1.71013 0.0609567 8.28748 121 101 111
-1.69722 -0.484554 8.372 80 62 92
-1.70903 0.677471 8.17012 54 41 51
-1.67698 -0.25231 8.29446 95 67 90
-1.664 0.069905 8.26143 54 42 52
-1.6668 -0.621187 8.34334 68 55 78
-1.66992 0.0681459 8.24803 49 39 49
-1.66992 0.0681459 8.24803 49 39 49
-1.6685 -0.560773 8.33029 75 62 87
-1.64801 -0.87695 8.36565 71 47 57
-1.65099 -0.252361 8.2686 68 56 77
-1.64389 -0.369947 8.27723 129 111 131
-1.65205 0.275988 8.18268 135 123 139
-1.63939 -0.159872 8.23765 135 114 129
-1.62595 -0.354413 8.25215 124 102 120
-1.64242 0.47737 8.11687 135 110 132
-1.60453 -0.149161 8.20642 64 49 66
-1.57865 -0.150819 8.18183 61 41 53
-1.57865 -0.150819 8.18183 61 41 53
-1.57634 -0.488268 8.22482 127 111 138
-1.59135 0.382097 8.09544 58 37 54
-1.58033 -0.153245 8.15798 58 41 56
-1.55619 -0.356227 8.20099 56 44 56
-1.55619 -0.356227 8.20099 56 44 56
-1.56761 -0.383583 8.18635 131 108 129
-1.55312 -0.962874 8.25901 71 56 75
-1.55757 0.219192 8.08422 53 39 58
-1.54923 0.0395144 8.11569 49 37 50
-1.56853 0.491478 8.0314 54 39 45
-1.56853 0.491478 8.0314 54 39 45
-1.54458 -0.132845 8.12431 128 108 129
-1.55202 0.287375 8.06065 119 105 130
-1.541 -0.514334 8.17535 60 42 62
-1.54809 -0.030064 8.10222 135 118 136
-1.53644 -0.344791 8.14876 71 53 79
-1.53629 -0.357817 8.14156 75 48 64
-1.53629 -0.357817 8.14156 75 48 64
-1.53848 -0.109559 8.09809 81 72 93
-1.54233 0.0257405 8.07484 60 52 63
-1.5369 -0.0273436 8.08722 64 47 70
-1.53277 -0.346756 8.13148 92 63 83
-1.52787 -0.153315 8.10358 93 78 86
-1.51159 -0.153074 8.08039 123 106 119
-1.5099 -0.359424 8.10844 68 49 61
-1.50932 -0.163456 8.07509 56 40 53
-1.51056 -0.269325 8.08689 101 69 82
-1.51077 0.258328 8.01879 80 62 76
-1.50104 0.391517 7.9755 112 97 115
-1.48354 -0.355777 8.07932 133 115 132
-1.46753 -0.747365 8.12243 102 69 80
-1.47724 -0.348248 8.05991 131 112 128
-1.4677 -0.7947 8.11849 105 72 94
-1.4677 -0.7947 8.11849 105 72 94
-1.48072 0.137407 7.97789 127 113 137
-1.46052 -0.7618 8.10809 134 111 128
-1.48442 0.433369 7.92408 118 91 108
-1.45821 -0.544947 8.07234 80 61 75
-1.47051 0.169477 7.96302 142 121 136
-1.43399 -0.886762 8.08808 84 61 71
-1.43917 -0.163702 7.96917 142 120 135
-1.43091 0.149882 7.92892 73 53 73
-1.43225 0.137384 7.92634 112 102 119
-1.42492 -0.352578 7.99112 84 59 84
-1.42422 0.0162674 7.93617 141 123 136
-1.42422 0.0162674 7.93617 141 123 136
-1.4249 0.179134 7.91189 40 32 47
-1.40899 -0.890499 8.05749 73 55 61
-1.40066 -0.671397 8.02217 71 59 70
-1.41822 0.157899 7.89632 137 118 136
-1.38425 -0.95159 8.05262 128 109 131
-1.39883 -0.328793 7.9577 74 58 72
-1.39307 -0.723691 8.01222 131 117 136
-1.36529 -0.554136 7.95324 56 45 65
-1.37911 0.466598 7.80188 86 68 82
-1.34526 -0.64165 7.93581 122 103 122
-1.33516 -0.654896 7.93467 69 55 73
-1.33065 -0.698728 7.93377 133 114 128
-1.32887 -0.710243 7.93489 76 55 71
-1.32887 -0.710243 7.93489 76 55 71
-1.34438 -0.166104 7.84654 135 125 148
-1.31097 -0.777413 7.91377 130 101 119
-1.30327 -0.550443 7.87829 79 61 83
-1.29633 -0.546479 7.86984 129 118 139
-1.29633 -0.546479 7.86984 129 118 139
-1.28189 -0.822351 7.90002 124 108 128
-1.2753 -0.893014 7.89729 75 61 72
-1.2708 -0.824273 7.89183 50 36 60
-1.53016 0.293033 7.50425 47 26 32
-1.28592 -0.673284 7.85734 95 59 77
-1.28592 -0.673284 7.85734 95 59 77
-1.50316 0.393618 7.5145 114 72 91
-1.27301 -0.537108 7.84038 59 45 69
-1.2692 -0.514023 7.83117 69 52 79
-1.26964 -0.540415 7.82985 122 98 119
-1.2713 -0.55306 7.82453 76 53 69
-1.28098 -0.166657 7.76611 97 72 98
-1.26972 -0.879681 7.86573 134 114 127
-1.2604 -0.493182 7.82473 128 120 143
-1.26008 -0.88219 7.87195 135 114 132
-1.26045 -0.515317 7.81593 119 103 122
-1.26045 -0.515317 7.81593 119 103 122
-1.49409 0.308975 7.49292 52 24 25
-1.23974 -0.92172 7.84938 130 104 118
-1.21379 -0.975753 7.83597 138 114 132
-1.21763 -0.998509 7.82788 138 109 117
-1.40054 0.495774 7.47117 91 42 55
-1.39067 0.413492 7.47623 121 75 86
-1.21475 -0.369462 7.7305 130 107 121
-1.19742 -0.219669 7.68315 79 56 75
-1.16684 -1.01075 7.78009 132 117 137
-1.13034 -0.562229 7.6592 126 114 136
-1.12248 -0.211082 7.59225 126 120 142
-1.12248 -0.211082 7.59225 126 120 142
-1.11112 -0.91887 7.67976 80 60 72
-1.1 -0.556764 7.61905 120 101 122
-1.27343 0.27229 7.35408 73 27 30
-1.09952 -0.918508 7.64919 88 62 72
-1.08528 -0.972975 7.65414 110 76 90
-1.07941 -0.764529 7.62799 82 59 74
-1.08313 -0.945392 7.6431 139 119 138
-1.08144 -0.580559 7.59534 62 42 49
-1.07717 -1.04108 7.65079 106 71 91
-1.08161 -0.408254 7.56553 54 39 42
-1.25627 0.235573 7.33216 78 31 37
-1.30058 -0.132909 7.33533 67 33 41
-1.05771 -0.582781 7.57055 51 37 44
-1.05771 -0.582781 7.57055 51 37 44
-1.05501 -0.901048 7.60513 85 69 86
-1.05501 -0.901048 7.60513 85 69 86
-1.05281 -0.936729 7.60117 139 123 144
-1.03464 -0.917808 7.59226 132 120 144
-1.21643 0.0631767 7.30628 77 36 49
-1.21533 0.0385168 7.30647 80 37 51
-1.21555 0.016007 7.30756 80 36 50
-1.22258 -0.189095 7.31808 69 27 35
-1.20497 -0.0256279 7.31127 84 34 44
-1.19194 -0.156013 7.30729 127 78 90
-1.19194 -0.156013 7.30729 127 78 90
-1.13883 0.114818 7.24985 61 34 42
-1.15124 -0.244579 7.2659 114 64 70
-1.15124 -0.244579 7.2659 114 64 70
-1.22912 -0.755286 7.2128 110 62 74
-1.17373 -0.319968 7.18505 76 37 38
-1.08539 -0.0424477 7.20543 58 31 39
-1.12155 0.325988 7.0837 65 24 30
-1.11898 0.283436 7.07866 139 85 94
-1.11461 0.323338 7.07057 121 72 75
-1.04516 0.0144469 7.1439 80 40 50
-1.04516 0.0144469 7.1439 80 40 50
-1.09841 0.269677 7.0493 88 37 47
-1.04903 0.182896 7.08603 99 48 53
-1.03644 -0.297021 7.14462 61 27 32
-1.02612 0.473034 7.05408 65 29 39
-1.02612 0.473034 7.05408 65 29 39
-1.04131 -0.423395 7.15129 69 33 46
-1.04256 -0.450133 7.15238 74 35 46
-1.02883 -0.599367 7.16723 103 61 71
-1.01787 -0.610836 7.14972 103 64 71
-1.01787 -0.610836 7.14972 103 64 71
-0.975954 0.275348 6.79525 138 80 92
-0.959013 0.259127 6.77778 52 26 33
-1.0025 -0.749304 6.85434 71 31 34
-1.04182 -0.890144 6.83097 141 93 112
-1.03675 -0.90943 6.83105 134 86 102
-0.916276 -0.00609432 6.77368 57 34 42
-0.922145 0.422318 6.71469 55 25 32
-0.922145 0.422318 6.71469 55 25 32
-1.01651 -0.763564 6.79804 82 37 44
-1.0344 -0.9172 6.80442 82 49 65
-0.902661 0.0620142 6.73493 78 35 40
-0.902761 0.479817 6.67613 126 72 86
-0.902761 0.479817 6.67613 126 72 86
-0.998416 -0.900246 6.77173 126 90 104
-1.00773 -0.725651 6.7438 156 102 119
-1.00773 -0.725651 6.7438 156 102 119
-0.991585 -0.892106 6.76467 117 70 85
-0.878268 0.252692 6.6851 61 36 42
-0.878268 0.252692 6.6851 61 36 42
-0.959429 -0.307202 6.69171 119 76 93
-0.880138 -0.156398 6.70836 105 80 103
-0.863138 0.262126 6.65845 137 82 97
-0.917265 0.626489 6.52677 159 105 121
-0.91811 -0.964254 6.67216 127 93 108
-0.83733 0.495912 6.54029 123 70 78
-0.80539 0.389362 6.56763 119 105 122
-0.757601 -0.405305 6.67601 38 17 16
-0.826647 0.402287 6.5038 116 95 76
-0.771469 0.348631 6.52123 161 147 143
-0.750723 -0.525361 6.63257 125 75 84
-0.750226 -0.141791 6.57448 182 170 148
-0.737862 -0.73116 6.64665 134 82 97
-0.725638 -0.182023 6.55872 174 164 146
-0.743191 -0.00685138 6.52096 135 119 93
-0.715834 -0.578453 6.60391 56 27 38
-0.727138 -0.20755 6.54395 77 36 44
-0.719913 -0.208164 6.54612 65 29 34
-0.802229 0.396343 6.38774 107 98 83
-0.600789 -0.409085 6.59256 115 74 86
-0.806237 0.365519 6.38683 26 19 23
-0.768867 -0.0708614 6.45482 153 127 112
-0.7573 -0.102632 6.46404 163 146 131
-0.7573 -0.102632 6.46404 163 146 131
-0.748728 -0.104704 6.45272 225 220 192
-0.756328 -0.0687903 6.44174 172 154 139
-0.786287 0.372038 6.36857 90 74 58
-0.762539 0.00445279 6.42232 178 167 139
-0.809656 0.235036 6.36913 204 198 182
-0.761914 -0.036533 6.42564 159 142 126
-0.764281 -0.0147347 6.42001 203 191 174
-0.666173 -0.58445 6.5402 126 74 85
-0.666173 -0.58445 6.5402 129 79 91
-0.759866 0.0187138 6.41613 124 97 76
-0.759866 0.0187138 6.41613 124 97 76
-0.760989 -0.00315935 6.41236 152 130 116
-0.782241 0.36925 6.35179 35 24 20
-0.599836 -0.419013 6.54304 125 75 87
-0.807778 0.221681 6.35474 91 76 74
-0.764703 0.382728 6.3425 98 83 64
-0.850316 0.698912 6.25602 115 75 96
-0.724091 0.0240973 6.38698 193 178 147
-0.72224 0.0238954 6.3875 183 169 142
-0.838766 0.741605 6.23212 141 93 108
-0.816605 0.241013 6.29624 148 138 149
-0.822306 0.345466 6.27543 148 136 110
-0.648102 -0.364169 6.4482 130 112 99
-0.690285 0.426106 6.32768 73 31 34
-0.815601 0.774041 6.21681 80 45 61
-0.622049 -0.619201 6.47925 61 26 36
-0.615106 -0.337293 6.43692 66 31 29
-0.610446 -0.60759 6.46805 122 70 82
-0.682711 -1.14886 6.47788 138 87 104
-0.596197 -0.0524572 6.38912 170 154 138
-0.58109 -0.0452602 6.3813 212 203 175
-0.60161 -0.0116494 6.35031 138 119 112
-0.574882 -0.0397986 6.35934 184 167 147
-0.62757 -1.14994 6.40754 117 83 109
-0.615023 0.344591 6.19569 91 66 73
-0.58447 -0.354004 6.27832 109 72 85
-0.599822 0.343508 6.17656 116 93 97
-0.538959 0.471179 6.18911 64 29 39
-0.58665 -0.943224 6.32394 61 31 38
-0.58665 -0.943224 6.32394 61 31 38
-0.473002 -0.148851 6.22998 61 27 38
-0.473002 -0.148851 6.22998 61 27 38
-0.461034 -0.0262066 6.2024 92 49 68
-0.473644 -0.217224 6.20325 108 79 103
-0.471888 -0.220295 6.20401 108 79 103
-0.538969 -1.18636 6.28749 88 49 67
-0.523172 -1.18805 6.27652 85 46 64
-0.451774 -0.419946 6.1895 138 90 105
-0.519348 -0.878218 6.20414 73 34 39
-0.420718 -0.103195 6.15077 127 78 94
-0.614161 0.715783 5.96588 66 56 67
-0.521142 -0.894914 6.18863 141 98 118
-0.41717 -0.423536 6.14646 141 100 116
-0.382755 0.347167 6.04873 145 92 105
-0.37737 -0.161058 6.10852 141 89 103
-0.395345 -0.266249 6.10887 68 38 43
-0.471828 -0.884786 6.14673 76 35 39
-0.366382 -0.000177685 6.0749 60 28 38
-0.35314 0.12281 6.0497 84 43 57
-0.353557 0.459189 6.00743 85 43 57
-0.461931 -0.985988 6.12415 49 27 39
-0.276573 -0.361198 6.10063 65 35 37
-0.452133 0.6814 5.77597 147 100 122
-0.425295 -1.3943 6.0269 52 27 33
-0.115173 0.171272 5.94918 46 24 31
-0.21847 -1.02903 6.04853 137 89 104
-0.442927 -1.44002 6.00513 70 34 38
-0.0931861 0.314982 5.91524 60 31 36
-0.08595 -0.0220363 5.95133 82 40 59
-0.445095 -1.42469 5.98008 150 110 129
-0.091419 0.436979 5.89217 85 41 57
-0.0823654 -0.0572474 5.94591 60 31 43
-0.0937534 -0.596405 6.00351 68 35 48
-0.0950707 -0.549457 5.99695 72 36 50
-0.0903574 -0.436307 5.98088 71 35 46
-0.0903574 -0.436307 5.98088 71 35 46
-0.0988412 0.0617088 5.91707 141 87 104
-0.094072 -0.612244 5.99678 122 84 101
-0.0794898 0.413317 5.88007 87 46 61
-0.0970093 -0.473449 5.97764 130 91 107
-0.193692 -1.15439 6.0121 133 108 134
-0.0766166 0.0462434 5.90339 98 52 61
-0.0765519 -0.449023 5.95185 111 66 74
-0.0605527 0.349823 5.86147 150 96 111
-0.380455 0.663381 5.69791 63 47 57
-0.0322779 -0.168483 5.89974 79 44 61
-0.371293 0.805773 5.65809 64 39 43
-0.371293 0.805773 5.65809 64 39 43
-0.107206 -0.818188 5.87946 61 31 44
0.0229643 -0.067742 5.80778 130 82 91
-0.303687 0.778061 5.57802 102 60 80
0.26644 -1.32307 6.01605 102 72 98
0.0465581 0.187666 5.75503 87 44 59
0.0643077 0.414925 5.70522 86 41 54
0.0616506 -0.316555 5.77392 62 31 39
0.0765122 0.383372 5.69398 62 30 38
0.0699531 -0.159828 5.74154 72 31 47
0.0635072 -0.309868 5.75707 113 67 73
0.318658 -1.52122 5.97949 81 53 77
0.0680296 -0.284933 5.74936 118 68 77
0.317548 -0.831796 5.87188 112 77 97
0.0822201 -0.0652863 5.70543 129 79 89
0.328424 -0.783397 5.86237 131 112 132
0.0928572 -0.0253416 5.69044 125 74 85
0.10535 0.0127214 5.66415 117 66 74
0.35827 -1.51971 5.92191 104 73 101
-0.202675 0.731281 5.46347 83 39 54
0.395309 -1.7519 5.92796 153 132 151
0.390499 -1.35936 5.8732 104 82 88
-0.196694 0.672579 5.45656 148 106 121
0.407511 -1.68434 5.8912 141 122 135
0.391076 -0.902419 5.78984 109 77 104
0.391076 -0.902419 5.78984 109 77 104
0.430353 -1.67224 5.87366 100 68 95
-0.14617 0.608733 5.41478 150 103 119
0.428095 -1.44517 5.82105 134 121 147
-0.139519 0.619386 5.39879 58 37 45
0.422458 -0.578873 5.6987 144 122 144
0.452085 -1.23605 5.78057 105 80 102
0.470389 -1.24358 5.75427 109 81 97
0.462057 -0.780829 5.68761 144 133 152
0.493327 -1.34267 5.75804 149 128 149
0.466855 -0.903922 5.6902 105 73 96
0.487234 -1.65034 5.78183 105 75 96
0.487234 -1.65034 5.78183 105 75 96
-0.101826 0.693316 5.3387 141 90 107
-0.101826 0.693316 5.3387 141 90 107
0.489275 -0.608871 5.64768 82 61 80
0.49303 -1.35602 5.73165 101 78 91
0.484607 -0.847641 5.6698 113 78 99
0.492977 -0.795904 5.66415 79 63 83
0.487139 -0.607897 5.61658 105 73 95
0.0816459 0.487567 5.36287 169 120 136
0.153815 0.401694 5.38446 153 108 124
0.5619 -1.25522 5.63286 101 74 97
0.591328 -1.85569 5.70036 93 62 89
0.554571 -0.564412 5.53857 89 64 88
0.557558 -0.54936 5.53676 93 69 91
0.224731 0.328688 5.31411 146 104 120
0.227594 0.374551 5.30861 77 46 52
0.122741 -0.152636 5.32488 71 27 32
0.61646 -0.830177 5.51816 77 60 86
0.117298 -0.163064 5.30564 147 100 116
0.68242 -1.59591 5.55888 146 126 154
0.669509 -0.409158 5.38974 88 68 93
0.688481 -0.833527 5.43587 64 52 64
0.695147 -1.0893 5.45523 88 66 79
0.710888 -1.49482 5.49778 96 70 100
0.703624 -1.38682 5.47476 135 126 151
0.115297 0.574183 5.10335 141 96 110
0.717905 -1.04808 5.4121 94 69 94
0.722776 -1.11896 5.41823 118 86 107
0.128992 0.73586 5.05465 101 57 72
0.746085 -1.07509 5.37865 130 113 125
0.765696 -1.10522 5.36614 138 121 140
0.778737 -1.06261 5.35789 101 81 99
0.776933 -0.88036 5.3326 88 70 87
0.164931 0.77742 5.013 115 77 88
0.776259 -0.898526 5.32157 156 129 144
0.776259 -0.898526 5.32157 156 129 144
0.76892 -0.447761 5.2657 137 123 149
0.75319 0.279594 5.17462 89 64 85
0.805052 -0.479447 5.26184 85 62 83
0.773768 -0.240189 5.2257 85 60 85
0.800033 -1.09423 5.32986 90 61 81
0.800033 -1.09423 5.32986 90 61 81
0.790925 -0.835631 5.29 141 126 153
0.819607 -1.3124 5.3467 139 121 141
0.805477 -0.479622 5.24328 93 72 97
0.805477 -0.479622 5.24328 93 72 97
0.787139 0.134849 5.1536 78 60 80
0.802612 0.289676 5.12676 88 69 97
0.812859 0.148668 5.13506 77 55 76
0.863499 -1.42715 5.31166 99 73 98
0.795743 0.351418 5.08536 107 77 92
0.795743 0.351418 5.08536 107 77 92
0.813853 0.449263 5.07676 45 38 50
0.813853 0.449263 5.07676 45 38 50
0.812869 0.263109 5.08759 146 125 141
0.867644 -1.30773 5.27486 81 61 77
0.837756 0.280452 5.06941 86 59 78
0.837756 0.280452 5.06941 86 59 78
0.887884 -1.23668 5.24906 90 67 83
0.873593 -0.877051 5.20037 85 62 75
0.873593 -0.877051 5.20037 85 62 75
0.915458 -1.09051 5.1907 77 59 86
0.884512 0.0521476 5.04757 102 75 90
0.914263 -1.23236 5.2007 68 52 77
0.908343 -0.289088 5.08559 75 52 62
0.894821 0.108004 5.02967 88 59 78
0.886599 0.304529 5.0048 96 71 90
0.881914 0.362552 4.99384 80 56 78
0.865082 0.602473 4.96119 42 50 116
0.912443 -0.269213 5.06462 137 121 147
0.863723 0.587495 4.95347 81 125 214
0.925849 -0.802813 5.11989 88 72 98
0.947285 -1.42066 5.18918 142 122 147
0.916377 0.134456 4.97947 158 140 156
0.990685 -1.44918 5.1628 89 61 82
0.930289 0.469183 4.93156 147 124 140
0.929284 0.441043 4.93173 58 42 48
0.94515 0.194416 4.95368 149 125 139
1.01747 -1.92222 5.20763 129 118 148
0.959911 0.178345 4.94532 156 132 146
1.01414 -1.72892 5.17247 132 116 142
1.02096 -1.95196 5.18405 138 120 142
1.01044 -1.53848 5.13357 72 44 75
1.02016 -1.52375 5.12838 140 124 150
0.939632 0.396985 4.89057 151 129 147
1.03151 -1.92391 5.16321 139 121 147
0.985575 0.0771586 4.92314 137 114 134
0.985575 0.0771586 4.92314 137 114 134
0.995935 -0.360995 4.97469 88 65 87
0.995935 -0.360995 4.97469 88 65 87
1.02514 -1.79427 5.14115 96 70 99
1.011 -1.72561 5.13065 145 127 152
1.00461 -0.472847 4.98432 82 65 90
0.992918 -0.0590469 4.93191 80 58 79
0.988918 0.0997349 4.9094 131 111 125
1.04326 -1.94697 5.1509 80 64 91
1.04326 -1.94697 5.1509 80 64 91
1.03042 -1.51118 5.09265 133 121 145
1.00696 0.0741668 4.8922 77 55 77
1.00768 0.0402388 4.89319 88 66 87
1.03101 -0.672655 4.9651 141 118 138
1.04427 -0.5125 4.9483 94 63 80
1.06417 -0.893189 4.97829 77 51 73
1.07123 -1.02901 4.99155 148 130 150
1.03698 0.750562 4.7732 141 118 136
1.02788 0.618271 4.78464 77 55 69
1.09824 -1.94988 5.08779 88 64 90
1.08088 -1.06376 4.98076 97 69 84
1.08755 -0.999152 4.95893 100 71 86
1.08599 -0.89368 4.94578 81 57 82
1.02665 1.05107 4.70864 98 74 98
1.05574 0.250528 4.80324 94 71 98
1.10512 -1.55353 5.01499 91 66 98
1.05144 0.413466 4.7808 138 122 133
1.12344 -1.95582 5.06231 87 61 92
1.07541 -0.306031 4.8611 143 124 142
1.05011 0.793001 4.72842 139 126 149
1.03134 1.04326 4.69391 145 130 149
1.10721 -0.943057 4.92837 136 117 133
1.03998 1.09607 4.68269 95 75 100
1.11049 -0.954577 4.91706 100 72 100
1.08227 0.805601 4.68732 109 80 95
1.14935 -1.9431 5.00806 141 128 151
1.16042 -1.96145 5.01071 73 60 92
1.10095 0.924594 4.66962 79 63 74
1.12369 -0.678718 4.85106 137 122 141
1.1155 0.117578 4.74615 155 134 152
1.15452 -0.322449 4.78853 53 33 47
1.16063 -0.680508 4.81451 140 121 141
1.15729 -0.279022 4.76478 142 124 140
1.15158 -0.132358 4.74238 151 136 153
